28.5376 -95.0304 -15.5477
29.1023 -95.0524 -16.5094
29.6265 -95.0704 -17.4783
29.9779 -95.0712 -18.4848
30.1503 -95.0540 -19.5315
29.7405 -94.9783 -20.7125
29.0262 -94.8720 -21.9674
28.1191 -94.7461 -23.2718
25.4426 -94.4420 -25.0019
25.2348 -95.9105 -11.9169
26.0386 -95.9549 -12.8369
27.0554 -96.0201 -13.7084
27.8102 -96.0598 -14.6328
28.3399 -96.0775 -15.6041
28.8963 -96.0979 -16.5678
29.5058 -96.1235 -17.5180
29.9685 -96.1348 -18.4995
30.2074 -96.1242 -19.5308
29.8858 -96.0585 -20.6913
29.2238 -95.9594 -21.9335
28.1723 -95.8218 -23.2713
25.9389 -97.0159 -12.8715
27.0094 -97.0844 -13.7316
27.7151 -97.1181 -14.6666
28.2098 -97.1317 -15.6456
28.7449 -97.1493 -16.6142
29.3674 -97.1752 -17.5617
29.8811 -97.1907 -18.5318
30.1681 -97.1845 -19.5522
30.0607 -97.1406 -20.6632
29.4850 -97.0517 -21.8847
25.7707 -98.0707 -12.9207
26.9182 -98.1443 -13.7645
27.6431 -98.1787 -14.6954
28.1287 -98.1908 -15.6764
28.6431 -98.2056 -16.6496
29.2403 -98.2282 -17.6028
29.7898 -98.2463 -18.5650
30.1641 -98.2481 -19.5655
30.2424 -98.2222 -20.6335
29.6579 -98.1342 -21.8566
26.7951 -99.2015 -13.8043
27.5678 -99.2390 -14.7250
28.0805 -99.2529 -15.7000
28.5757 -99.2652 -16.6774
29.1330 -99.2832 -17.6396
29.6858 -99.3008 -18.6011
30.1299 -99.3086 -19.5858
30.3706 -99.2978 -20.6163
29.9299 -99.2247 -21.8054
25.5505 -100.1920 -12.9946
26.6248 -100.2548 -13.8542
27.4828 -100.2985 -14.7566
28.0534 -100.3168 -15.7190
28.5497 -100.3285 -16.6961
29.0646 -100.3419 -17.6677
29.6005 -100.3572 -18.6330
30.1031 -100.3696 -19.6044
30.4545 -100.3685 -20.6092
30.0175 -100.2972 -21.7972
24.8606 -101.2348 -12.0639
25.6636 -101.2721 -12.9842
26.5609 -101.3177 -13.8813
27.3590 -101.3547 -14.7967
27.9895 -101.3773 -15.7461
28.5269 -101.3919 -16.7141
29.0332 -101.4038 -17.6875
29.5485 -101.4166 -18.6574
30.0652 -101.4294 -19.6255
30.4244 -101.4287 -20.6285
29.9664 -101.3570 -21.8213
25.1606 -102.3312 -12.0147
25.8011 -102.3535 -12.9685
26.4892 -102.3799 -13.9101
27.2041 -102.4085 -14.8436
27.8500 -102.4314 -15.7898
28.4497 -102.4505 -16.7442
29.0198 -102.4671 -17.7033
29.5524 -102.4806 -18.6692
30.0069 -102.4874 -19.6513
30.3145 -102.4819 -20.6662
30.0237 -102.4259 -21.8202
24.6937 -103.3943 -11.0366
25.3554 -103.4173 -11.9875
25.9142 -103.4320 -12.9581
26.5185 -103.4504 -13.9173
27.1375 -103.4700 -14.8713
27.7612 -103.4901 -15.8224
28.4100 -103.5122 -16.7660
29.0573 -103.5343 -17.7077
29.6031 -103.5481 -18.6704
29.9645 -103.5467 -19.6736
30.2019 -103.5352 -20.7046
29.9407 -103.4827 -21.8518
24.4722 -104.4474 -11.0965
25.3159 -104.4837 -12.0096
26.0268 -104.5096 -12.9478
26.6747 -104.5306 -13.8972
27.2710 -104.5474 -14.8557
27.8652 -104.5642 -15.8128
28.5277 -104.5864 -16.7529
29.1920 -104.6088 -17.6904
29.7076 -104.6193 -18.6595
29.9862 -104.6110 -19.6812
30.0869 -104.5885 -20.7436
29.8590 -104.5396 -21.8831
24.5570 -105.5247 -11.0929
25.3597 -105.5564 -12.0141
26.1283 -105.5856 -12.9399
26.8413 -105.6105 -13.8749
27.5026 -105.6315 -14.8187
28.1427 -105.6509 -15.7651
28.7878 -105.6707 -16.7082
29.3969 -105.6878 -17.6574
29.8663 -105.6941 -18.6363
30.1085 -105.6827 -19.6658
30.0979 -105.6518 -20.7535
29.8579 -105.6029 -21.8957
24.5496 -106.5944 -11.1083
25.4366 -106.6311 -12.0118
26.2201 -106.6601 -12.9340
26.9744 -106.6869 -13.8598
27.7246 -106.7135 -14.7839
28.4465 -106.7381 -15.7116
29.0835 -106.7562 -16.6557
29.6399 -106.7684 -17.6159
30.0648 -106.7708 -18.6041
30.2866 -106.7578 -19.6377
30.2572 -106.7259 -20.7292
29.7766 -106.6599 -21.9270
23.4669 -107.6153 -10.2561
24.5188 -107.6622 -11.1287
25.4200 -107.6983 -12.0291
26.2475 -107.7292 -12.9418
27.0534 -107.7585 -13.8563
27.8847 -107.7898 -14.7624
28.6907 -107.8192 -15.6712
29.3888 -107.8409 -16.6011
29.9285 -107.8510 -17.5641
30.2741 -107.8471 -18.5695
30.4557 -107.8311 -19.6116
30.4438 -107.8010 -20.6986
29.7160 -107.7185 -21.9535
23.4683 -108.6871 -10.2699
24.4486 -108.7271 -11.1572
25.3922 -108.7646 -12.0487
26.2507 -108.7962 -12.9548
27.1192 -108.8285 -13.8557
28.0190 -108.8632 -14.7466
28.8856 -108.8955 -15.6416
29.6460 -108.9204 -16.5571
30.1649 -108.9284 -17.5240
30.4185 -108.9175 -18.5495
30.5578 -108.8986 -19.6009
30.5559 -108.8697 -20.6852
29.7358 -108.7828 -21.9613
24.4821 -109.7991 -11.1643
25.4288 -109.8351 -12.0548
26.3225 -109.8676 -12.9532
27.2350 -109.9014 -13.8443
28.1694 -109.9368 -14.7273
29.0637 -109.9695 -15.6158
29.8374 -109.9941 -16.5277
30.3141 -109.9984 -17.5035
30.4934 -109.9824 -18.5454
30.6149 -109.9623 -19.6005
30.6049 -109.9333 -20.6864
29.6240 -109.8376 -21.9998
23.4336 -110.8276 -10.3053
24.5477 -110.8728 -11.1646
25.4978 -110.9073 -12.0542
26.4295 -110.9407 -12.9441
27.3770 -110.9752 -13.8273
28.3328 -111.0103 -14.7052
29.2453 -111.0427 -15.5891
30.0952 -111.0709 -16.4836
30.5340 -111.0721 -17.4672
30.5404 -111.0447 -18.5475
30.6516 -111.0242 -19.6048
30.6175 -110.9940 -20.6960
29.4921 -110.8914 -22.0430
23.5784 -111.9078 -10.2897
24.5966 -111.9448 -11.1684
25.5986 -111.9809 -12.0468
26.5577 -112.0144 -12.9306
27.5289 -112.0487 -13.8082
28.4992 -112.0830 -14.6825
29.4139 -112.1139 -15.5654
30.2902 -112.1424 -16.4534
30.5800 -112.1335 -17.4698
30.5389 -112.1034 -18.5607
30.6551 -112.0834 -19.6167
30.4822 -112.0449 -20.7399
29.5325 -111.9565 -22.0460
24.7441 -113.0224 -11.1518
25.7084 -113.0544 -12.0376
26.7067 -113.0885 -12.9126
27.6920 -113.1219 -13.7867
28.6522 -113.1539 -14.6626
29.5330 -113.1810 -15.5525
30.3779 -113.2060 -16.4471
30.4251 -113.1820 -17.5175
30.5068 -113.1600 -18.5808
30.6947 -113.1446 -19.6204
30.4546 -113.1028 -20.7588
29.4262 -113.0121 -22.0834
24.8076 -114.0941 -11.1526
25.8279 -114.1276 -12.0263
26.8542 -114.1616 -12.8950
27.8427 -114.1934 -13.7679
28.7775 -114.2221 -14.6488
29.5845 -114.2434 -15.5544
30.2730 -114.2577 -16.4835
30.1976 -114.2266 -17.5815
30.4604 -114.2157 -18.6042
30.6625 -114.2011 -19.6405
30.4528 -114.1620 -20.7719
29.1576 -114.0583 -22.1586
25.1778 -115.1826 -11.0896
26.0125 -115.2038 -12.0014
26.9747 -115.2322 -12.8831
27.9721 -115.2628 -13.7537
28.8802 -115.2883 -14.6400
29.5626 -115.3010 -15.5725
29.8412 -115.2908 -16.5924
29.9751 -115.2724 -17.6444
30.3918 -115.2700 -18.6326
30.6230 -115.2571 -19.6623
30.4188 -115.2192 -20.7924
28.9727 -115.1102 -22.2143
26.0164 -116.2690 -12.0144
27.0804 -116.3012 -12.8743
28.0606 -116.3290 -13.7482
28.9599 -116.3525 -14.6361
29.3334 -116.3472 -15.6362
29.2643 -116.3178 -16.7336
29.7786 -116.3202 -17.7015
30.3104 -116.3237 -18.6640
30.6129 -116.3146 -19.6774
30.3890 -116.2766 -20.8120
28.9275 -116.1704 -22.2375
26.1145 -117.3388 -12.0077
27.0830 -117.3642 -12.8875
27.8970 -117.3815 -13.7970
28.5555 -117.3907 -14.7374
28.8240 -117.3795 -15.7614
29.0853 -117.3679 -16.7866
29.6792 -117.3738 -17.7369
30.2565 -117.3789 -18.6891
30.5874 -117.3711 -19.6960
30.3033 -117.3308 -20.8445
29.0600 -117.2399 -22.2192
26.3556 -118.3903 -13.0561
27.3167 -118.4135 -13.9355
28.0493 -118.4253 -14.8610
28.5495 -118.4256 -15.8351
29.0579 -118.4263 -16.8059
29.6618 -118.4318 -17.7539
30.2232 -118.4352 -18.7096
30.5638 -118.4275 -19.7142
30.2513 -118.3869 -20.8692
26.6573 -119.4441 -14.0909
27.8331 -119.4759 -14.9215
28.4613 -119.4816 -15.8678
29.0939 -119.4875 -16.8112
29.7184 -119.4931 -17.7543
30.2174 -119.4926 -18.7240
30.5114 -119.4824 -19.7391
30.2331 -119.4446 -20.8862
26.6001 -120.5049 -14.1170
27.7951 -120.5354 -14.9433
28.4180 -120.5398 -15.8907
29.1444 -120.5490 -16.8132
29.7785 -120.5541 -17.7540
30.2294 -120.5507 -18.7342
30.4714 -120.5379 -19.7611
30.2679 -120.5045 -20.8909
27.7252 -121.5934 -14.9721
28.3827 -121.5983 -15.9119
29.1367 -121.6075 -16.8282
29.7689 -121.6115 -17.7693
30.2077 -121.6070 -18.7522
30.4187 -121.5927 -19.7861
27.5402 -122.6467 -15.0259
28.2915 -122.6545 -15.9454
29.0628 -122.6631 -16.8580
29.7251 -122.6673 -17.7923
30.1487 -122.6617 -18.7786
30.4637 -122.6516 -19.7887
30.1135 -122.6140 -20.9522
27.3405 -123.7001 -15.0829
28.1435 -123.7086 -15.9914
28.9530 -123.7174 -16.8957
29.6611 -123.7223 -17.8199
30.1187 -123.7175 -18.7985
30.4321 -123.7071 -19.8089
30.1781 -123.6744 -20.9501
27.2620 -124.7586 -15.1136
28.0682 -124.7658 -16.0215
28.8782 -124.7732 -16.9257
29.6030 -124.7776 -17.8461
30.1129 -124.7741 -18.8129
30.3375 -124.7601 -19.8436
27.1263 -125.8152 -15.1568
28.0429 -125.8248 -16.0406
28.8490 -125.8307 -16.9455
29.5760 -125.8339 -17.8655
30.0579 -125.8288 -18.8385
30.1196 -125.8091 -19.9065
27.0785 -126.8750 -15.1809
28.0238 -126.8839 -16.0583
28.8551 -126.8893 -16.9576
29.5698 -126.8909 -17.8801
30.0238 -126.8841 -18.8594
30.1738 -126.8676 -19.9071
27.0681 -127.9360 -15.1968
27.9879 -127.9424 -16.0797
28.8678 -127.9478 -16.9682
29.5640 -127.9476 -17.8947
29.9601 -127.9386 -18.8870
26.9186 -128.9929 -15.2431
27.9584 -129.0010 -16.0998
28.8373 -129.0048 -16.9884
29.5184 -129.0031 -17.9183
29.9504 -128.9946 -18.9024
26.9121 -130.0539 -15.2582
27.9205 -130.0593 -16.1217
28.7615 -130.0606 -17.0187
29.4269 -130.0574 -17.9521
29.7731 -130.0461 -18.9558
26.8916 -131.1144 -15.2764
27.8545 -131.1169 -16.1499
28.6858 -131.1165 -17.0490
29.3257 -131.1116 -17.9882
29.5615 -131.0975 -19.0171
26.8152 -132.1736 -15.3068
27.7821 -132.1745 -16.1794
28.5751 -132.1718 -17.0871
29.2290 -132.1662 -18.0233
29.3598 -132.1497 -19.0762
25.8116 -133.2347 -14.4525
26.7976 -133.2341 -15.3245
27.6985 -133.2320 -16.2115
28.4310 -133.2268 -17.1327
29.0626 -133.2198 -18.0741
29.1987 -133.2035 -19.1260
25.7349 -134.2958 -14.4830
26.7607 -134.2941 -15.3463
27.6239 -134.2898 -16.2416
28.3147 -134.2827 -17.1721
28.8404 -134.2729 -18.1375
26.7349 -135.3542 -15.3657
27.5587 -135.3478 -16.2696
28.2230 -135.3392 -17.2061
28.6942 -135.3279 -18.1838
28.5853 -135.3084 -19.2920
25.5663 -136.4184 -14.5473
26.6611 -136.4137 -15.3957
27.4983 -136.4060 -16.2966
28.1247 -136.3959 -17.2416
28.4943 -136.3828 -18.2422
28.3329 -136.3633 -19.3627
25.5783 -137.4809 -14.5587
26.6250 -137.4737 -15.4174
27.4618 -137.4646 -16.3184
28.0316 -137.4529 -17.2759
28.2919 -137.4383 -18.3012
28.0504 -137.4188 -19.4402
24.2501 -138.5502 -13.7702
25.5574 -138.5428 -14.5772
26.6098 -138.5338 -15.4346
27.4212 -138.5230 -16.3411
27.9317 -138.5101 -17.3118
28.1210 -138.4948 -18.3532
27.6262 -138.4744 -19.5500
24.3218 -139.6150 -13.7691
25.5815 -139.6050 -14.5860
26.6032 -139.5938 -15.4499
27.3522 -139.5813 -16.3701
27.8084 -139.5674 -17.3529
27.9612 -139.5519 -18.4027
27.0669 -139.5310 -19.6906
24.3207 -140.6792 -13.7835
25.6303 -140.6669 -14.5895
26.5470 -140.6535 -15.4761
27.2450 -140.6397 -16.4075
27.6786 -140.6251 -17.3955
27.8219 -140.6096 -18.4476
26.5145 -140.5899 -19.8296
24.3649 -141.7432 -13.7883
25.6271 -141.7283 -14.6043
26.4672 -141.7133 -15.5074
27.0942 -141.6983 -16.4545
27.4774 -141.6831 -17.4540
27.2936 -141.6675 -18.5800
23.2088 -142.8240 -12.9593
24.4972 -142.8066 -13.7742
25.6047 -142.7897 -14.6232
26.3860 -142.7733 -15.5391
26.9173 -142.7574 -16.5074
27.1477 -142.7420 -17.5411
26.8682 -142.7274 -18.6894
23.3017 -143.8893 -12.9540
24.5319 -143.8697 -13.7810
25.5623 -143.8510 -14.6464
26.2882 -143.8335 -15.5744
26.7083 -143.8173 -16.5673
26.8532 -143.8021 -17.6205
26.3376 -143.7895 -18.8225
22.4085 -144.9745 -12.0663
23.5031 -144.9534 -12.9258
24.6082 -144.9322 -13.7790
25.5470 -144.9122 -14.6638
26.1770 -144.8941 -15.6126
26.5029 -144.8779 -16.6265
26.5185 -144.8636 -17.7088
25.7943 -144.8539 -18.9584
22.4058 -146.0413 -12.0813
23.6116 -146.0172 -12.9173
24.6870 -145.9942 -13.7764
25.5256 -145.9733 -14.6826
26.0354 -145.9552 -15.6576
26.2725 -145.9395 -16.6912
26.0602 -145.9275 -17.8247
24.8720 -145.9236 -19.1797
21.4266 -147.1319 -11.2086
22.5291 -147.1065 -12.0701
23.7702 -147.0797 -12.8982
24.7357 -147.0560 -13.7803
25.4677 -147.0348 -14.7093
25.8606 -147.0172 -15.7097
25.8971 -147.0035 -16.7879
25.2513 -146.9970 -18.0188
21.6343 -148.1973 -11.1803
22.7620 -148.1696 -12.0359
23.8344 -148.1427 -12.8990
24.7471 -148.1178 -13.7921
25.3782 -148.0967 -14.7427
25.6548 -148.0802 -15.7687
25.3637 -148.0710 -16.9195
20.6769 -149.2922 -10.3003
21.8902 -149.2610 -11.1420
22.9144 -149.2327 -12.0186
23.8978 -149.2051 -12.9000
24.7170 -149.1801 -13.8128
25.2082 -149.1601 -14.7936
25.2695 -149.1467 -15.8669
24.8595 -149.1404 -17.0447
19.6089 -150.3923 -9.4395
20.9590 -150.3563 -10.2574
22.0735 -150.3246 -11.1188
23.0535 -150.2952 -12.0041
23.9493 -150.2674 -12.9035
24.6601 -150.2429 -13.8393
24.9627 -150.2255 -14.8609
24.7903 -150.2164 -15.9856
24.2411 -150.2138 -17.1951
20.0526 -151.4545 -9.3646
21.1972 -151.4200 -10.2235
22.2205 -151.3879 -11.1031
23.1622 -151.3575 -11.9959
23.9501 -151.3303 -12.9178
24.5465 -151.3068 -13.8779
24.6866 -151.2924 -14.9347
24.2316 -151.2896 -16.1217
23.5069 -151.2921 -17.3711
19.2303 -152.5538 -8.4520
20.3566 -152.5175 -9.3181
21.4730 -152.4815 -10.1818
22.4307 -152.4490 -11.0742
23.2451 -152.4198 -11.9931
23.9005 -152.3941 -12.9427
24.3373 -152.3732 -13.9370
24.3554 -152.3615 -15.0205
23.6857 -152.3649 -16.2551
22.4823 -152.3799 -17.6113
19.5468 -153.6172 -8.4037
20.7557 -153.5768 -9.2522
21.7221 -153.5423 -10.1457
22.5978 -153.5101 -11.0543
23.2869 -153.4825 -11.9989
23.7670 -153.4600 -12.9854
23.9382 -153.4450 -14.0366
23.6837 -153.4402 -15.1799
22.9614 -153.4468 -16.4274
21.0722 -153.4814 -17.9366
19.9492 -154.6767 -8.3383
21.0533 -154.6368 -9.2069
21.9371 -154.6028 -10.1165
22.7239 -154.5714 -11.0429
23.2847 -154.5461 -12.0140
23.5502 -154.5285 -13.0458
23.4909 -154.5197 -14.1467
23.0961 -154.5196 -15.3212
22.2185 -154.5323 -16.6039
19.5255 -154.5927 -18.2922
20.2995 -155.7357 -8.2832
21.2995 -155.6968 -9.1720
22.1292 -155.6628 -10.0920
22.8073 -155.6332 -11.0404
23.2177 -155.6114 -12.0426
23.3056 -155.5988 -13.1120
23.0411 -155.5963 -14.2573
22.4768 -155.6024 -15.4694
20.8861 -155.6378 -16.9093
19.5376 -156.8374 -7.3587
20.6323 -156.7937 -8.2316
21.5568 -156.7552 -9.1348
22.2698 -156.7234 -10.0780
22.7907 -156.6976 -11.0585
23.0524 -156.6798 -12.0918
22.9680 -156.6728 -13.1980
22.5174 -156.6770 -14.3837
21.7066 -156.6924 -15.6503
19.4736 -156.7516 -17.2321
18.9009 -157.9374 -6.4074
20.0023 -157.8913 -7.2819
20.9370 -157.8509 -8.1856
21.7209 -157.8155 -9.1165
22.3095 -157.7866 -10.0847
22.6767 -157.7652 -11.0968
22.7765 -157.7526 -12.1642
22.5156 -157.7520 -13.3082
21.8822 -157.7637 -14.5341
20.6402 -157.7956 -15.8952
19.2992 -158.9935 -6.3447
20.3470 -158.9473 -7.2288
21.1607 -158.9095 -8.1559
21.7903 -158.8782 -9.1174
22.2481 -158.8531 -10.1121
22.4609 -158.8367 -11.1562
22.4151 -158.8294 -12.2545
22.0261 -158.8344 -13.4264
21.2406 -158.8533 -14.6858
18.4094 -160.1049 -5.4414
19.6070 -160.0511 -6.2997
20.5673 -160.0063 -7.2003
21.2711 -159.9712 -8.1488
21.8010 -159.9427 -9.1301
22.1376 -159.9215 -10.1495
22.1920 -159.9110 -11.2267
22.0005 -159.9098 -12.3559
21.5534 -159.9182 -13.5411
20.5144 -159.9489 -14.8558
18.9233 -161.1550 -5.3574
19.8941 -161.1080 -6.2587
20.7498 -161.0656 -7.1793
21.3728 -161.0326 -8.1435
21.8156 -161.0069 -9.1421
21.9976 -160.9915 -10.1930
21.8879 -160.9879 -11.3044
21.5475 -160.9934 -12.4655
20.9513 -161.0092 -13.6832
19.8691 -161.0443 -15.0084
18.2284 -162.2616 -4.4152
19.3847 -162.2049 -5.2835
20.2086 -162.1624 -6.2124
20.9181 -162.1247 -7.1611
21.4782 -162.0933 -8.1374
21.7966 -162.0722 -9.1609
21.7923 -162.0648 -10.2500
21.5526 -162.0672 -11.3887
21.1311 -162.0774 -12.5674
20.3732 -162.1017 -13.8202
18.9855 -162.1525 -15.2122
18.7675 -163.3080 -4.3275
19.6684 -163.2605 -5.2439
20.3963 -163.2208 -6.1909
21.0419 -163.1848 -7.1517
21.5282 -163.1559 -8.1424
21.6965 -163.1412 -9.1962
21.5309 -163.1413 -10.3184
21.1843 -163.1495 -11.4798
20.7078 -163.1634 -12.6709
19.5841 -163.2060 -14.0020
18.2374 -164.4089 -3.3534
19.2388 -164.3551 -4.2529
19.8824 -164.3180 -5.2178
20.5395 -164.2804 -6.1781
21.1575 -164.2447 -7.1440
21.5194 -164.2209 -8.1592
21.5394 -164.2131 -9.2430
21.2876 -164.2180 -10.3832
20.7760 -164.2351 -11.5792
19.9662 -164.2660 -12.8410
17.6252 -165.5152 -2.3932
18.7064 -165.4557 -3.2803
19.4766 -165.4113 -4.2228
20.0854 -165.3750 -5.1939
20.7290 -165.3370 -6.1562
21.2742 -165.3038 -7.1360
21.4615 -165.2882 -8.1859
21.3512 -165.2872 -9.2961
21.0842 -165.2938 -10.4398
20.4729 -165.3173 -11.6569
19.3011 -165.3681 -12.9952
18.0068 -166.5663 -2.3376
19.0471 -166.5068 -3.2314
19.7893 -166.4626 -4.1784
20.3953 -166.4255 -5.1492
20.9817 -166.3894 -6.1220
21.3665 -166.3636 -7.1329
21.3676 -166.3575 -8.2198
21.1477 -166.3627 -9.3524
20.8793 -166.3704 -10.4967
20.1756 -166.4004 -11.7334
17.5630 -167.6655 -1.3455
18.5505 -167.6068 -2.2516
19.4277 -167.5542 -3.1750
20.1247 -167.5112 -4.1296
20.6802 -167.4758 -5.1094
21.0994 -167.4477 -6.1142
21.2888 -167.4319 -7.1634
21.1850 -167.4318 -8.2715
20.9119 -167.4408 -9.4152
20.5559 -167.4542 -10.5780
18.0462 -168.7086 -1.2720
19.0742 -168.6460 -2.1694
19.8410 -168.5979 -3.1123
20.3728 -168.5630 -4.0976
20.7525 -168.5365 -5.1107
20.9704 -168.5191 -6.1547
20.9792 -168.5134 -7.2400
20.8371 -168.5160 -8.3563
20.5753 -168.5254 -9.4985
20.2005 -168.5411 -10.6659
18.6019 -169.7454 -1.1851
19.5456 -169.6857 -2.0969
20.0670 -169.6506 -3.0850
20.4166 -169.6254 -4.1046
20.6431 -169.6074 -5.1472
20.7017 -169.5991 -6.2226
20.5881 -169.6008 -7.3327
20.3996 -169.6069 -8.4592
20.1048 -169.6192 -9.6089
19.6268 -169.6420 -10.7985
17.9392 -170.8574 -0.2345
19.1384 -170.7807 -1.1018
19.6992 -170.7424 -2.0837
20.0383 -170.7174 -3.1060
20.2353 -170.7010 -4.1547
20.3407 -170.6902 -5.2212
20.3168 -170.6871 -6.3133
20.1586 -170.6922 -7.4330
19.9573 -170.6999 -8.5630
19.5813 -170.7181 -9.7302
18.4921 -171.8915 -0.1494
19.2465 -171.8402 -1.0974
19.5130 -171.8194 -2.1341
19.7534 -171.8002 -3.1754
19.8969 -171.7871 -4.2349
19.9544 -171.7794 -5.3113
19.9422 -171.7761 -6.4020
19.7819 -171.7821 -7.5230
19.5852 -171.7904 -8.6528
18.9454 -171.8262 -9.8743
18.0159 -172.9934 0.8355
18.7619 -172.9413 -0.1159
19.0581 -172.9183 -1.1479
19.1837 -172.9064 -2.2113
19.3766 -172.8901 -3.2622
19.5332 -172.8763 -4.3200
19.6240 -172.8667 -5.3907
19.6147 -172.8637 -6.4815
19.4777 -172.8689 -7.5986
19.1400 -172.8871 -8.7573
18.2580 -174.0450 0.8633
18.7107 -174.0112 -0.1410
18.8362 -173.9994 -1.2046
18.9079 -173.9911 -2.2784
19.0379 -173.9791 -3.3418
19.1986 -173.9651 -4.3996
19.2791 -173.9564 -5.4730
19.2260 -173.9567 -6.5731
19.0664 -173.9641 -7.6954
18.6268 -173.9903 -8.8755
17.6456 -175.1575 1.8246
18.3542 -175.1054 0.8648
18.4635 -175.0948 -0.2019
18.5190 -175.0879 -1.2788
18.5899 -175.0800 -2.3535
18.7385 -175.0668 -3.4140
18.8835 -175.0539 -4.4754
18.8951 -175.0502 -5.5628
18.8005 -175.0539 -6.6719
18.5344 -175.0694 -7.8162
18.0609 -175.0993 -9.0043
17.1533 -175.1592 -10.2835
17.6304 -176.2265 1.8059
17.9726 -176.1994 0.7802
17.8343 -176.2066 -0.3325
18.0912 -176.1856 -1.3736
18.2721 -176.1701 -2.4286
18.4452 -176.1553 -3.4851
18.5484 -176.1454 -4.5551
18.5268 -176.1445 -5.6497
18.3599 -176.1539 -6.7737
17.9526 -176.1806 -7.9470
17.4488 -176.2141 -9.1424
16.2608 -176.2963 -10.4799
16.8527 -177.3540 2.7398
17.5756 -177.2985 1.7803
17.9200 -177.2709 0.7549
17.6966 -177.2850 -0.3733
17.8203 -177.2736 -1.4394
18.0237 -177.2565 -2.4907
18.1810 -177.2428 -3.5507
18.2417 -177.2363 -4.6294
18.1849 -177.2384 -5.7314
17.8932 -177.2578 -6.8806
17.4361 -177.2894 -8.0648
17.0510 -177.3158 -9.2376
15.9119 -177.3975 -10.5660
16.8526 -178.4232 2.7238
17.5380 -178.3693 1.7577
17.7307 -178.3528 0.7050
17.6886 -178.3541 -0.3906
17.7148 -178.3503 -1.4746
17.8811 -178.3359 -2.5330
18.0012 -178.3251 -3.6004
18.0211 -178.3219 -4.6872
17.8906 -178.3302 -5.8039
17.5320 -178.3557 -6.9669
17.0882 -178.3877 -8.1493
16.6525 -178.4192 -9.3329
15.4819 -178.5062 -10.6686
16.8077 -179.4958 2.7000
17.3295 -179.4535 1.7047
17.4768 -179.4405 0.6433
17.5071 -179.4367 -0.4395
17.6016 -179.4279 -1.5112
17.7738 -179.4131 -2.5688
17.8734 -179.4041 -3.6402
17.8378 -179.4055 -4.7378
17.6014 -179.4227 -5.8755
17.2101 -179.4520 -7.0455
16.7911 -179.4835 -8.2236
16.3478 -179.5170 -9.4094
15.3365 -179.5947 -10.7135
15.9499 -180.6348 3.6224
16.7212 -180.5718 2.6688
17.1410 -180.5370 1.6552
17.3081 -180.5225 0.5971
17.3995 -180.5141 -0.4750
17.5122 -180.5041 -1.5435
17.6634 -180.4910 -2.6051
17.7490 -180.4832 -3.6793
17.6297 -180.4919 -4.7933
17.2833 -180.5188 -5.9527
16.8886 -180.5497 -7.1241
16.5274 -180.5779 -8.2914
16.1070 -180.6109 -9.4731
15.4003 -180.6669 -10.7158
15.7228 -181.7241 3.5669
16.5996 -181.6511 2.6314
16.9942 -181.6178 1.6131
17.2022 -181.6000 0.5621
17.3363 -181.5883 -0.5023
17.4545 -181.5779 -1.5699
17.5597 -181.5687 -2.6402
17.5821 -181.5664 -3.7266
17.3797 -181.5826 -4.8568
17.0239 -181.6115 -6.0186
16.6928 -181.6384 -7.1780
16.3803 -181.6638 -8.3360
15.9378 -181.7000 -9.5225
15.3311 -181.7498 -10.7452
15.6961 -182.7973 3.5462
16.4602 -182.7323 2.5909
16.8706 -182.6972 1.5752
17.1256 -182.6754 0.5324
17.2732 -182.6626 -0.5296
17.3803 -182.6534 -1.5993
17.4350 -182.6486 -2.6792
17.3733 -182.6537 -3.7818
17.1400 -182.6734 -4.9183
16.8627 -182.6969 -6.0654
16.6146 -182.7179 -7.2088
16.3315 -182.7420 -8.3612
15.9308 -182.7761 -9.5393
15.6594 -183.8715 3.5238
16.3312 -183.8132 2.5522
16.7656 -183.7755 1.5405
17.0627 -183.7498 0.5052
17.2060 -183.7375 -0.5577
17.2892 -183.7305 -1.6319
17.3134 -183.7287 -2.7177
17.2028 -183.7386 -3.8297
16.9642 -183.7597 -4.9677
16.7485 -183.7789 -6.1031
16.5618 -183.7956 -7.2347
16.3241 -183.8167 -8.3781
15.8557 -183.8580 -9.5698
15.6762 -184.9409 3.5106
16.2512 -184.8902 2.5221
16.6982 -184.8508 1.5126
17.0299 -184.8218 0.4834
17.1470 -184.8120 -0.5843
17.1920 -184.8086 -1.6657
17.2093 -184.8077 -2.7529
17.0983 -184.8184 -3.8652
16.8832 -184.8383 -4.9988
16.7176 -184.8539 -6.1246
16.5569 -184.8691 -7.2511
16.3169 -184.8914 -8.3950
15.8901 -184.9304 -9.5783
15.7812 -184.9412 -10.6999
14.8072 -186.0904 4.4343
15.5457 -186.0238 3.4719
16.1365 -185.9707 2.4859
16.6304 -185.9265 1.4846
16.9699 -185.8964 0.4567
17.0849 -185.8869 -0.6115
17.1025 -185.8863 -1.6980
17.1243 -185.8854 -2.7845
17.0785 -185.8907 -3.8846
16.9264 -185.9058 -5.0061
16.7818 -185.9203 -6.1277
16.6185 -185.9365 -7.2545
16.3626 -185.9612 -8.4014
16.0477 -185.9914 -9.5621
15.8288 -186.0129 -10.7056
15.1070 -186.0803 -11.9543
14.8100 -187.1624 4.4186
15.4967 -187.0994 3.4473
16.0720 -187.0469 2.4586
16.5499 -187.0035 1.4543
16.8766 -186.9743 0.4240
17.0183 -186.9624 -0.6395
17.0527 -186.9607 -1.7230
17.1082 -186.9570 -2.8032
17.1416 -186.9554 -3.8883
17.0419 -186.9664 -4.9995
16.8871 -186.9825 -6.1229
16.7274 -186.9992 -7.2487
16.5075 -187.0215 -8.3880
16.2545 -187.0470 -9.5359
15.9869 -187.0740 -10.6888
15.5891 -187.1132 -11.8706
15.3957 -188.1803 3.4136
15.9979 -188.1243 2.4295
16.4750 -188.0803 1.4250
16.8124 -188.0498 0.3965
16.9977 -188.0338 -0.6590
17.0707 -188.0287 -1.7354
17.1503 -188.0230 -2.8111
17.2228 -188.0180 -3.8885
17.1720 -188.0249 -4.9902
17.0361 -188.0400 -6.1095
16.9139 -188.0539 -7.2275
16.7386 -188.0729 -8.3576
16.4954 -188.0984 -9.5029
16.1693 -188.1320 -10.6671
15.2553 -189.2654 3.3732
15.9280 -189.2015 2.4012
16.4241 -189.1550 1.4000
16.7754 -189.1228 0.3740
16.9893 -189.1041 -0.6764
17.0604 -189.0994 -1.7531
17.1410 -189.0938 -2.8285
17.2675 -189.0838 -3.8957
17.2816 -189.0849 -4.9848
17.1932 -189.0961 -6.0945
17.1646 -189.1014 -7.1938
17.0750 -189.1128 -8.3062
16.8688 -189.1357 -9.4433
16.6792 -189.1570 -10.5788
16.2892 -189.1981 -11.7573
15.2162 -190.3409 3.3503
15.8812 -190.2767 2.3770
16.3802 -190.2293 1.3762
16.7512 -190.1947 0.3537
17.0173 -190.1707 -0.6871
17.0511 -190.1699 -1.7706
17.1514 -190.1626 -2.8423
17.3184 -190.1487 -3.9017
17.3449 -190.1489 -4.9882
17.3330 -190.1530 -6.0829
17.4138 -190.1479 -7.1603
17.4529 -190.1470 -8.2465
17.3400 -190.1615 -9.3639
17.0857 -190.1901 -10.5115
16.7131 -190.2307 -11.6855
15.9865 -190.3068 -12.9356
15.1366 -191.4206 3.3204
15.8330 -191.3522 2.3525
16.3367 -191.3036 1.3525
16.7519 -191.2641 0.3380
17.0852 -191.2330 -0.6905
17.1908 -191.2253 -1.7605
17.3513 -191.2120 -2.8205
17.4999 -191.2000 -3.8829
17.4824 -191.2050 -4.9774
17.5576 -191.2007 -6.0549
17.7083 -191.1886 -7.1180
17.8192 -191.1807 -8.1891
17.8369 -191.1825 -9.2794
17.6748 -191.2027 -10.4071
17.2664 -191.2482 -11.5870
16.5745 -191.3227 -12.8286
15.0749 -192.4988 3.2936
15.8048 -192.4258 2.3315
16.3200 -192.3752 1.3336
16.7529 -192.3333 0.3223
17.1072 -192.2997 -0.7023
17.3607 -192.2767 -1.7448
17.5774 -192.2576 -2.7938
17.7597 -192.2422 -3.8493
17.8488 -192.2365 -4.9227
17.9644 -192.2282 -5.9914
18.0648 -192.2215 -7.0634
18.1450 -192.2170 -8.1398
18.2421 -192.2108 -9.2133
18.2470 -192.2143 -10.3060
17.9247 -192.2521 -11.4669
17.3803 -192.3132 -12.6763
14.9944 -193.5793 3.2635
15.7838 -193.4987 2.3118
16.3535 -193.4416 1.3236
16.7656 -193.4014 0.3087
17.1323 -193.3660 -0.7135
17.4668 -193.3342 -1.7409
17.7322 -193.3098 -2.7805
17.9921 -193.2861 -3.8208
18.2640 -193.2612 -4.8585
18.4476 -193.2457 -5.9130
18.4916 -193.2452 -6.9950
18.4661 -193.2523 -8.0914
18.5539 -193.2472 -9.1660
18.6734 -193.2389 -10.2346
18.5166 -193.2601 -11.3604
18.1023 -193.3090 -12.5414
17.3217 -193.3971 -13.8022
15.2440 -194.6241 3.2908
15.9134 -194.5552 2.3186
16.4162 -194.5045 1.3189
16.8150 -194.4653 0.3017
17.1929 -194.4283 -0.7182
17.6125 -194.3869 -1.7296
17.8964 -194.3603 -2.7654
18.1344 -194.3388 -3.8095
18.4335 -194.3107 -4.8416
18.7199 -194.2840 -5.8756
18.8844 -194.2707 -6.9332
18.8091 -194.2836 -8.0386
18.8405 -194.2850 -9.1237
18.9772 -194.2749 -10.1882
18.9992 -194.2774 -11.2764
18.8378 -194.3000 -12.4037
18.3021 -194.3635 -13.6113
15.9577 -195.6206 2.3104
16.4778 -195.5673 1.3139
16.8888 -195.5262 0.2992
17.2512 -195.4905 -0.7234
17.7517 -195.4396 -1.7196
18.0733 -195.4086 -2.7479
18.2504 -195.3937 -3.8031
18.5180 -195.3689 -4.8409
18.8198 -195.3403 -5.8718
19.0375 -195.3211 -6.9186
19.0571 -195.3240 -8.0047
19.1674 -195.3170 -9.0734
19.4158 -195.2946 -10.1143
19.5238 -195.2879 -11.1838
19.5161 -195.2941 -12.2778
19.0818 -195.3479 -13.4624
18.3055 -195.4399 -14.7227
15.8730 -196.7004 2.2795
16.4787 -196.6367 1.2981
16.9365 -196.5897 0.2919
17.2913 -196.5545 -0.7319
17.7605 -196.5064 -1.7337
18.1838 -196.4636 -2.7429
18.3950 -196.4449 -3.7913
18.6363 -196.4228 -4.8338
18.9129 -196.3968 -5.8692
19.1475 -196.3756 -6.9124
19.3201 -196.3616 -7.9678
19.5783 -196.3379 -9.0061
19.9151 -196.3053 -10.0280
20.1265 -196.2871 -11.0750
20.0522 -196.3013 -12.1815
19.7870 -196.3373 -13.3293
19.1153 -196.4195 -14.5657
15.7200 -197.7885 2.2365
16.3935 -197.7159 1.2670
16.9377 -197.6584 0.2763
17.3624 -197.6147 -0.7347
17.8410 -197.5649 -1.7346
18.3075 -197.5165 -2.7354
18.6653 -197.4808 -3.7556
18.9792 -197.4502 -4.7835
19.1473 -197.4366 -5.8392
19.3748 -197.4161 -6.8832
19.6497 -197.3902 -7.9177
19.9754 -197.3586 -8.9415
20.2965 -197.3275 -9.9657
20.5150 -197.3083 -11.0103
20.5040 -197.3158 -12.1027
20.2791 -197.3481 -13.2410
19.8880 -197.3998 -14.4165
19.3835 -197.4647 -15.6191
15.6908 -198.8625 2.2154
16.3437 -198.7913 1.2422
16.9804 -198.7221 0.2681
17.5020 -198.6665 -0.7249
18.0262 -198.6106 -1.7160
18.5188 -198.5585 -2.7115
18.9965 -198.5083 -3.7084
19.4491 -198.4611 -4.7087
19.5373 -198.4569 -5.7788
19.6504 -198.4498 -6.8445
19.9026 -198.4264 -7.8828
20.2220 -198.3952 -8.9073
20.5653 -198.3612 -9.9263
20.8511 -198.3340 -10.9564
20.9159 -198.3330 -12.0322
20.7269 -198.3620 -13.1619
20.4569 -198.4006 -14.3107
20.1722 -198.4411 -15.4647
19.4827 -198.5295 -16.7089
15.5790 -199.9466 2.1796
16.3630 -199.8586 1.2297
17.0758 -199.7793 0.2695
17.6803 -199.7130 -0.7081
18.2593 -199.6497 -1.6885
18.7812 -199.5935 -2.6779
19.2537 -199.5432 -3.6751
19.6619 -199.5007 -4.6834
19.8343 -199.4866 -5.7366
19.9160 -199.4835 -6.8077
20.0924 -199.4690 -7.8605
20.3895 -199.4402 -8.8889
20.7689 -199.4014 -9.9002
21.1160 -199.3667 -10.9172
21.2778 -199.3543 -11.9721
21.1701 -199.3744 -13.0839
20.9968 -199.4024 -14.2110
20.8828 -199.4234 -15.3270
20.6099 -199.4636 -16.4790
19.7282 -199.5771 -17.7668
15.4669 -201.0313 2.1439
16.3995 -200.9238 1.2202
17.1725 -200.8358 0.2711
17.8050 -200.7652 -0.7010
18.4465 -200.6935 -1.6695
19.0405 -200.6276 -2.6449
19.5017 -200.5780 -3.6436
19.8610 -200.5410 -4.6607
20.0702 -200.5224 -5.7062
20.1942 -200.5144 -6.7685
20.3922 -200.4973 -7.8162
20.6735 -200.4701 -8.8472
21.0027 -200.4371 -9.8679
21.3314 -200.4043 -10.8881
21.5236 -200.3882 -11.9362
21.5314 -200.3948 -13.0230
21.5111 -200.4049 -14.1167
21.5797 -200.4041 -15.1922
21.5865 -200.4111 -16.2817
20.7376 -200.5230 -17.5601
15.6165 -202.0837 2.1543
16.5077 -201.9798 1.2237
17.2756 -201.8912 0.2739
17.9212 -201.8178 -0.6956
18.6094 -201.7393 -1.6551
19.2293 -201.6693 -2.6251
19.6922 -201.6189 -3.6231
20.0619 -201.5802 -4.6377
20.3318 -201.5540 -5.6709
20.5105 -201.5393 -6.7217
20.7920 -201.5117 -7.7520
21.1002 -201.4810 -8.7766
21.3680 -201.4553 -9.8088
21.6339 -201.4300 -10.8411
21.8185 -201.4148 -11.8900
21.8703 -201.4163 -12.9669
21.9674 -201.4122 -14.0347
22.0906 -201.4050 -15.0974
22.1735 -201.4028 -16.1692
21.8693 -201.4490 -17.3266
15.7993 -203.1314 2.1705
16.6470 -203.0313 1.2326
17.3685 -202.9473 0.2749
18.0302 -202.8709 -0.6914
18.7375 -202.7888 -1.6470
19.3477 -202.7191 -2.6186
19.8323 -202.6653 -3.6121
20.2537 -202.6197 -4.6164
20.5995 -202.5836 -5.6343
20.8662 -202.5577 -6.6671
21.1709 -202.5271 -7.6920
21.4870 -202.4950 -8.7141
21.7640 -202.4680 -9.7435
22.0344 -202.4419 -10.7739
22.2540 -202.4223 -11.8145
22.3880 -202.4137 -12.8731
22.4431 -202.4151 -13.9487
22.6032 -202.4033 -15.0023
22.7501 -202.3932 -16.0589
22.6048 -202.4203 -17.1800
16.0774 -204.1659 2.2036
16.8532 -204.0736 1.2536
17.4775 -204.0009 0.2788
18.1120 -203.9270 -0.6922
18.7948 -203.8469 -1.6522
19.4176 -203.7746 -2.6211
19.9534 -203.7136 -3.6047
20.4229 -203.6611 -4.5994
20.8173 -203.6185 -5.6074
21.1511 -203.5837 -6.6265
21.4786 -203.5499 -7.6461
21.8016 -203.5166 -8.6661
22.1034 -203.4862 -9.6897
22.4003 -203.4565 -10.7138
22.6602 -203.4316 -11.7452
22.8524 -203.4155 -12.7905
22.9816 -203.4077 -13.8492
23.2077 -203.3874 -14.8873
23.4026 -203.3712 -15.9321
23.2708 -203.3973 -17.0487
22.1600 -203.5501 -18.3842
16.4337 -205.1889 2.2506
17.0832 -205.1118 1.2788
17.6740 -205.0426 0.2985
18.2656 -204.9733 -0.6798
18.8881 -204.8999 -1.6506
19.4986 -204.8283 -2.6216
20.0669 -204.7622 -3.5987
20.5721 -204.7045 -4.5863
21.0069 -204.6561 -5.5861
21.3927 -204.6141 -6.5944
21.7594 -204.5748 -7.6056
22.1068 -204.5380 -8.6200
22.4179 -204.5061 -9.6409
22.7353 -204.4734 -10.6601
23.0443 -204.4419 -11.6804
23.2801 -204.4201 -12.7156
23.4790 -204.4033 -13.7584
23.7432 -204.3779 -14.7872
23.9898 -204.3548 -15.8194
24.0016 -204.3628 -16.9031
22.7649 -204.5350 -18.2649
16.6686 -206.2264 2.2761
17.3356 -206.1461 1.3080
17.9685 -206.0703 0.3360
18.5098 -206.0067 -0.6508
19.0520 -205.9431 -1.6359
19.6233 -205.8758 -2.6139
20.1956 -205.8083 -3.5899
20.7190 -205.7474 -4.5736
21.1828 -205.6946 -5.5674
21.6279 -205.6443 -6.5636
22.0731 -205.5940 -7.5586
22.4589 -205.5518 -8.5644
22.7546 -205.5217 -9.5877
23.0762 -205.4881 -10.6051
23.4469 -205.4481 -11.6117
23.7689 -205.4147 -12.6278
24.0088 -205.3922 -13.6608
24.2519 -205.3695 -14.6928
24.4527 -205.3525 -15.7338
24.4158 -205.3673 -16.8271
17.0348 -207.2452 2.3249
17.6714 -207.1678 1.3522
18.2887 -207.0931 0.3782
18.8288 -207.0290 -0.6081
19.3430 -206.9684 -1.5976
19.8794 -206.9049 -2.5814
20.4093 -206.8423 -3.5649
20.9020 -206.7848 -4.5539
21.3791 -206.7295 -5.5447
21.8947 -206.6691 -6.5265
22.4425 -206.6043 -7.5004
22.9050 -206.5512 -8.4898
23.2332 -206.5164 -9.5054
23.5640 -206.4813 -10.5198
23.9496 -206.4388 -11.5222
24.3245 -206.3979 -12.5259
24.6196 -206.3679 -13.5458
24.8094 -206.3522 -14.5879
24.7949 -206.3644 -15.6745
24.5112 -206.4133 -16.8212
23.8031 -206.5200 -18.0643
17.5671 -208.2394 2.4030
18.0959 -208.1759 1.4123
18.6893 -208.1035 0.4349
19.2479 -208.0360 -0.5470
19.7558 -207.9755 -1.5367
20.2582 -207.9159 -2.5259
20.7261 -207.8611 -3.5202
21.1514 -207.8122 -4.5215
21.6684 -207.7508 -5.5038
22.2622 -207.6788 -6.4695
22.8752 -207.6042 -7.4295
23.4552 -207.5343 -8.3943
23.8616 -207.4883 -9.3926
24.2042 -207.4513 -10.4031
24.5373 -207.4156 -11.4149
24.8533 -207.3824 -12.4297
25.1114 -207.3572 -13.4562
25.1920 -207.3566 -14.5206
24.9924 -207.3948 -15.6466
24.6454 -207.4535 -16.8067
24.0810 -207.5423 -18.0176
22.9442 -207.7104 -19.3605
17.1218 -209.3584 3.3938
17.9226 -209.2560 2.4499
18.5782 -209.1739 1.4828
19.1737 -209.1003 0.5069
19.7238 -209.0332 -0.4754
20.2067 -208.9755 -1.4686
20.6824 -208.9189 -2.4618
21.1530 -208.8631 -3.4546
21.5878 -208.8123 -4.4530
22.1401 -208.7452 -5.4275
22.7451 -208.6707 -6.3898
23.3497 -208.5963 -7.3504
23.9726 -208.5195 -8.3053
24.4481 -208.4633 -9.2883
24.7691 -208.4289 -10.3019
25.0215 -208.4043 -11.3292
25.2339 -208.3852 -12.3647
25.3251 -208.3833 -13.4258
25.2581 -208.4037 -14.5215
25.0324 -208.4464 -15.6530
24.6970 -208.5047 -16.8104
24.1958 -208.5863 -18.0072
23.3157 -208.7213 -19.2922
17.3564 -210.3920 3.4188
18.2980 -210.2682 2.5003
19.0276 -210.1745 1.5474
19.6537 -210.0957 0.5781
20.2249 -210.0247 -0.3992
20.7213 -209.9644 -1.3887
21.2083 -209.9055 -2.3785
21.7154 -209.8438 -3.3632
22.2204 -209.7825 -4.3468
22.7731 -209.7145 -5.3196
23.3422 -209.6442 -6.2875
23.9255 -209.5719 -7.2509
24.5048 -209.5003 -8.2133
24.9355 -209.4498 -9.2042
25.1678 -209.4278 -10.2350
25.3198 -209.4173 -11.2823
25.4166 -209.4146 -12.3414
25.3754 -209.4318 -13.4303
25.2344 -209.4633 -14.5418
24.9982 -209.5085 -15.6755
24.6561 -209.5688 -16.8345
24.0983 -209.6600 -18.0439
23.1152 -209.8121 -19.3523
17.9012 -211.3797 3.4979
18.6575 -211.2810 2.5480
19.4498 -211.1770 1.6071
20.1284 -211.0896 0.6484
20.7033 -211.0172 -0.3271
21.2288 -210.9520 -1.3101
21.7645 -210.8854 -2.2896
22.3068 -210.8179 -3.2662
22.8565 -210.7494 -4.2398
23.3975 -210.6822 -5.2134
23.9363 -210.6154 -6.1859
24.4892 -210.5466 -7.1539
24.9778 -210.4872 -8.1333
25.2896 -210.4535 -9.1473
25.4251 -210.4453 -10.1972
25.4722 -210.4500 -11.2657
25.4520 -210.4645 -12.3491
25.3524 -210.4907 -13.4504
25.1777 -210.5278 -14.5692
24.9126 -210.5780 -15.7093
24.5385 -210.6442 -16.8755
23.8996 -210.7489 -18.1032
22.6497 -210.9423 -19.4720
18.0951 -212.4165 3.5158
18.9589 -212.3007 2.5854
19.7605 -212.1941 1.6469
20.4513 -212.1037 0.6912
21.0902 -212.0210 -0.2718
21.6408 -211.9514 -1.2492
22.1832 -211.8830 -2.2264
22.7393 -211.8127 -3.1994
23.2889 -211.7434 -4.1720
23.7984 -211.6800 -5.1507
24.3057 -211.6170 -6.1284
24.7803 -211.5589 -7.1112
25.1399 -211.5178 -8.1159
25.3627 -211.4968 -9.1477
25.4492 -211.4959 -10.2075
25.4581 -211.5066 -11.2839
25.4025 -211.5268 -12.3748
25.2720 -211.5581 -13.4827
25.0509 -211.6028 -14.6117
24.7570 -211.6583 -15.7583
24.3430 -211.7317 -16.9337
23.6467 -211.8466 -18.1746
22.2526 -212.0645 -19.5763
18.7156 -213.4002 2.5265
19.7356 -213.2597 1.6267
20.4516 -213.1644 0.6755
21.1582 -213.0707 -0.2751
21.7598 -212.9926 -1.2427
22.2911 -212.9250 -2.2217
22.8456 -212.8541 -3.1948
23.3821 -212.7859 -4.1696
23.8674 -212.7254 -5.1528
24.3151 -212.6707 -6.1421
24.7063 -212.6244 -7.1414
24.9985 -212.5929 -8.1598
25.1795 -212.5780 -9.2004
25.2723 -212.5765 -10.2593
25.2960 -212.5853 -11.3330
25.2458 -212.6052 -12.4231
25.0937 -212.6405 -13.5360
24.8223 -212.6936 -14.6761
24.5043 -212.7538 -15.8286
24.0634 -212.8325 -17.0104
23.2237 -212.9709 -18.2838
21.8731 -213.1857 -19.6767
18.5046 -214.4959 2.4733
19.3016 -214.3872 1.5331
20.2095 -214.2618 0.6158
20.9263 -214.1653 -0.3334
21.5954 -214.0761 -1.2890
22.1691 -214.0014 -2.2603
22.7108 -213.9316 -3.2360
23.2298 -213.8653 -4.2145
23.6986 -213.8066 -5.2012
24.0973 -213.7586 -6.2005
24.4284 -213.7209 -7.2123
24.6852 -213.6946 -8.2384
24.8435 -213.6832 -9.2844
24.9414 -213.6811 -10.3429
24.9915 -213.6863 -11.4118
24.9483 -213.7057 -12.5011
24.7955 -213.7418 -13.6148
24.5114 -213.7979 -14.7583
24.1673 -213.8633 -15.9172
23.5832 -213.9650 -17.1313
22.5093 -214.1413 -18.4579
18.8271 -215.5229 1.4322
19.7546 -215.3929 0.5174
20.5634 -215.2811 -0.4158
21.2590 -215.1868 -1.3672
21.9006 -215.1008 -2.3265
22.4690 -215.0260 -3.2977
22.9753 -214.9610 -4.2791
23.4231 -214.9049 -5.2705
23.7815 -214.8626 -6.2783
24.0600 -214.8327 -7.3012
24.2719 -214.8131 -8.3373
24.4072 -214.8053 -9.3888
24.5020 -214.8039 -10.4489
24.5605 -214.8081 -11.5171
24.5311 -214.8259 -12.6044
24.3766 -214.8630 -13.7194
24.0926 -214.9202 -14.8639
23.6824 -214.9969 -16.0380
22.7249 -215.1579 -17.3354
18.1355 -216.6944 1.2923
19.1566 -216.5482 0.3931
20.0549 -216.4212 -0.5250
20.8029 -216.3176 -1.4678
21.4824 -216.2247 -2.4209
22.0848 -216.1438 -3.3865
22.5922 -216.0778 -4.3685
23.0219 -216.0240 -5.3643
23.3661 -215.9836 -6.3758
23.6272 -215.9561 -7.4031
23.8076 -215.9414 -8.4464
23.9110 -215.9387 -9.5055
23.9924 -215.9396 -10.5695
24.0494 -215.9443 -11.6391
24.0076 -215.9646 -12.7302
23.7926 -216.0119 -13.8592
23.4352 -216.0816 -15.0209
22.7403 -216.2041 -16.2585
21.9946 -216.3346 -17.5115
18.3213 -217.7437 0.2256
19.2731 -217.6066 -0.6845
20.1933 -217.4746 -1.5969
20.9418 -217.3697 -2.5384
21.5570 -217.2859 -3.5028
22.0521 -217.2212 -4.4883
22.4596 -217.1703 -5.4895
22.8056 -217.1293 -6.5019
23.0745 -217.1005 -7.5290
23.2365 -217.0887 -8.5772
23.3112 -217.0907 -9.6434
23.3792 -217.0939 -10.7115
23.4571 -217.0957 -11.7781
23.3706 -217.1235 -12.8800
23.0133 -217.1943 -14.0408
22.6369 -217.2682 -15.2083
21.7319 -217.4259 -16.4936
18.1904 -218.8438 -0.8993
19.3575 -218.6706 -1.7682
20.2460 -218.5420 -2.6852
20.9093 -218.4496 -3.6419
21.4173 -218.3821 -4.6264
21.8016 -218.3345 -5.6335
22.1107 -218.2990 -6.6546
22.3544 -218.2741 -7.6883
22.4993 -218.2651 -8.7416
22.5785 -218.2667 -9.8085
22.6148 -218.2753 -10.8848
22.6242 -218.2883 -11.9675
22.4060 -218.3379 -13.0990
18.0933 -219.9398 -2.0193
19.3453 -219.7507 -2.8706
20.1604 -219.6326 -3.8003
20.7306 -219.5543 -4.7745
21.1135 -219.5065 -5.7834
21.3681 -219.4796 -6.8168
21.5725 -219.4610 -7.8600
21.7079 -219.4536 -8.9170
21.7389 -219.4633 -9.9955
21.7150 -219.4821 -11.0862
21.4528 -219.5396 -12.2275
18.0802 -221.0234 -3.1247
18.9759 -220.8907 -4.0419
19.9031 -220.7528 -4.9498
20.2589 -220.7090 -5.9659
20.5674 -220.6732 -6.9906
20.7311 -220.6612 -8.0436
20.7962 -220.6655 -9.1167
19.9816 -220.8149 -10.3701
19.6057 -220.8922 -11.5374
30.3485 -74.2077 -6.8241
30.0965 -74.2034 -7.8561
31.4728 -75.3984 -6.1211
31.8230 -75.4770 -7.3634
32.1051 -75.5460 -8.5785
31.9833 -75.5592 -9.6500
31.2023 -75.4816 -10.4930
29.2569 -75.2436 -10.9393
31.6695 -76.4593 -5.0908
32.0108 -76.5351 -6.3320
32.4710 -76.6269 -7.6115
32.6697 -76.6830 -8.7955
32.5775 -76.6997 -9.8757
32.2732 -76.6875 -10.8815
31.9316 -76.6702 -11.8743
31.5109 -76.6423 -12.8401
28.7941 -76.3903 -16.3653
28.2042 -76.3393 -17.2799
28.6667 -76.4303 -18.5379
27.8976 -76.3551 -19.3944
28.2843 -76.4356 -20.6231
31.6640 -77.5223 -5.1090
31.9609 -77.5905 -6.3342
32.3145 -77.6661 -7.5761
32.5314 -77.7234 -8.7667
32.5581 -77.7553 -9.8884
32.4052 -77.7631 -10.9463
32.1724 -77.7603 -11.9757
32.2423 -77.7976 -13.1075
32.4547 -77.8538 -14.2853
32.4417 -77.8799 -15.3848
32.2522 -77.8825 -16.4240
31.9674 -77.8724 -17.4309
31.4265 -77.8283 -18.3536
31.2838 -77.8370 -19.4067
30.6070 -77.7748 -20.2865
29.1949 -77.6152 -20.9323
28.5155 -77.5527 -21.8163
31.6206 -78.6078 -6.2335
31.9268 -78.6755 -7.4593
32.1364 -78.7305 -8.6482
32.2246 -78.7695 -9.7920
32.3166 -78.8089 -10.9349
32.4040 -78.8476 -12.0740
32.7101 -78.9147 -13.2854
33.1755 -79.0026 -14.5471
33.0528 -79.0135 -15.6080
32.8834 -79.0183 -16.6521
32.6735 -79.0178 -17.6820
32.3971 -79.0085 -18.6895
32.1581 -79.0041 -19.7088
31.9517 -79.0038 -20.7380
31.6417 -78.9900 -21.7334
31.1310 -78.9501 -22.6648
30.5103 -78.8959 -23.5624
29.7906 -78.8287 -24.4303
28.7140 -78.7153 -25.1892
27.6633 -78.6052 -25.9596
26.1763 -78.4386 -26.6001
26.0163 -78.4441 -27.6485
31.1726 -79.6393 -7.2135
31.4175 -79.6975 -8.4163
31.5693 -79.7436 -9.5838
31.8660 -79.8083 -10.7988
32.3104 -79.8918 -12.0611
32.9921 -80.0055 -13.4000
33.5227 -80.0997 -14.6829
33.4677 -80.1188 -15.7653
33.3527 -80.1301 -16.8264
33.0804 -80.1212 -17.8344
32.8113 -80.1127 -18.8431
32.6411 -80.1168 -19.8835
32.5082 -80.1255 -20.9352
32.3251 -80.1278 -21.9696
32.0827 -80.1225 -22.9845
31.8603 -80.1196 -24.0052
31.6348 -80.1163 -25.0243
31.2794 -80.0964 -26.0026
30.6744 -80.0446 -26.9039
29.6276 -79.9366 -27.6716
28.4951 -79.8176 -28.4166
27.0520 -79.6592 -29.0720
30.4199 -80.6324 -8.0872
30.7084 -80.6946 -9.3044
31.1483 -80.7758 -10.5706
31.6515 -80.8648 -11.8546
32.4116 -80.9860 -13.2216
33.2694 -81.1194 -14.6161
33.5098 -81.1749 -15.7979
33.5810 -81.2090 -16.9206
33.2967 -81.1984 -17.9239
33.0729 -81.1954 -18.9467
32.9674 -81.2071 -20.0074
32.8941 -81.2229 -21.0773
32.8138 -81.2376 -22.1435
32.6801 -81.2456 -23.1916
32.5460 -81.2535 -24.2385
32.4627 -81.2677 -25.3003
32.2310 -81.2632 -26.3147
31.8838 -81.2442 -27.2931
31.1706 -81.1795 -28.1596
30.0218 -81.0602 -28.8959
28.3630 -80.8773 -29.4826
26.2515 -80.6379 -29.9406
30.3064 -81.7310 -10.2998
30.7474 -81.8103 -11.5643
31.3915 -81.9146 -12.8939
32.2815 -82.0492 -14.3015
33.1410 -82.1797 -15.6929
33.3772 -82.2333 -16.8711
33.1786 -82.2331 -17.9030
33.1111 -82.2490 -18.9771
33.1257 -82.2749 -20.0766
33.1318 -82.2998 -21.1715
33.1164 -82.3219 -22.2578
33.0707 -82.3402 -23.3329
32.9829 -82.3532 -24.3933
32.8463 -82.3602 -25.4372
32.5882 -82.3522 -26.4424
32.2696 -82.3367 -27.4285
31.6198 -82.2806 -28.3133
30.5092 -82.1678 -29.0600
28.3983 -81.9325 -29.5095
25.5892 -81.6117 -29.7592
29.8531 -82.7610 -11.2775
30.3814 -82.8489 -12.5697
32.8303 -83.2166 -16.7077
32.8570 -83.2433 -17.8151
33.0273 -83.2873 -18.9677
33.1816 -83.3293 -20.1125
33.2902 -83.3657 -21.2402
33.2830 -83.3880 -22.3286
33.2337 -83.4051 -23.4020
33.1457 -83.4175 -24.4617
32.9199 -83.4132 -25.4772
32.6102 -83.3988 -26.4660
32.2433 -83.3775 -27.4370
31.3217 -83.2893 -28.2387
29.1911 -83.0555 -28.6767
26.7565 -82.7854 -29.0320
32.8308 -84.3123 -18.9213
33.1238 -84.3696 -20.1115
33.3313 -84.4166 -21.2711
33.3084 -84.4362 -22.3542
33.2119 -84.4471 -23.4123
33.0905 -84.4549 -24.4614
32.7534 -84.4372 -25.4420
32.2674 -84.4019 -26.3764
31.1991 -84.2977 -27.1321
29.0712 -84.0684 -27.5677
27.3885 -83.8918 -28.1468
29.6598 -84.9041 -13.4738
30.0072 -84.9667 -14.6996
30.3776 -85.0318 -15.9295
31.1509 -85.1437 -17.2888
33.1188 -85.4375 -21.2202
33.1400 -85.4615 -22.3177
32.2320 -85.3991 -24.2080
31.3285 -85.3158 -25.0134
30.3604 -85.2249 -25.8015
29.2770 -85.1208 -26.5571
28.0607 -85.0013 -27.2757
26.5622 -84.8491 -27.9129
24.7465 -84.6604 -28.4604
29.3046 -85.9224 -13.3729
29.6287 -85.9807 -14.5916
29.8406 -86.0261 -15.7696
30.0185 -86.0675 -16.9337
30.2037 -86.1097 -18.0975
30.4755 -86.1616 -19.2869
31.4014 -86.3087 -21.7790
30.5587 -86.2336 -22.6045
30.0297 -86.1942 -23.5313
29.5327 -86.1584 -24.4690
28.9618 -86.1142 -25.3845
28.3203 -86.0620 -26.2794
27.2324 -85.9591 -27.0393
25.8308 -85.8207 -27.7078
23.9003 -85.6224 -28.2225
28.9365 -86.9406 -13.2677
29.4029 -87.0132 -14.5347
29.5611 -87.0513 -15.6952
29.6785 -87.0847 -16.8399
29.7511 -87.1131 -17.9675
29.7483 -87.1330 -19.0687
29.6982 -87.1475 -20.1529
29.5969 -87.1563 -21.2192
29.4132 -87.1558 -22.2582
29.1377 -87.1451 -23.2675
28.7921 -87.1266 -24.2546
28.3180 -87.0937 -25.2018
27.6201 -87.0359 -26.0807
26.5589 -86.9377 -26.8504
25.0592 -86.7909 -27.4907
23.0701 -86.5897 -27.9894
29.1620 -88.0448 -14.4727
29.3973 -88.0901 -15.6594
29.4764 -88.1183 -16.7916
29.5211 -88.1426 -17.9105
29.5180 -88.1616 -19.0119
29.4447 -88.1730 -20.0890
29.3040 -88.1768 -21.1432
29.0753 -88.1711 -22.1684
28.7601 -88.1559 -23.1659
28.3449 -88.1298 -24.1319
27.8049 -88.0900 -25.0596
27.0527 -88.0271 -25.9230
25.9953 -87.9310 -26.6950
24.4472 -87.7816 -27.3219
22.5373 -87.5929 -27.8459
28.9733 -89.0828 -14.4283
29.2936 -89.1358 -15.6434
29.4242 -89.1684 -16.7927
29.4598 -89.1908 -17.9085
29.4266 -89.2059 -19.0002
29.3120 -89.2121 -20.0640
29.1388 -89.2121 -21.1080
28.8861 -89.2035 -22.1259
28.5374 -89.1846 -23.1131
28.0742 -89.1535 -24.0646
27.4490 -89.1052 -24.9663
26.6055 -89.0335 -25.8023
25.5487 -88.9391 -26.5755
24.1665 -88.8102 -27.2536
29.1872 -90.1813 -15.6266
29.4380 -90.2254 -16.8156
29.5144 -90.2512 -17.9446
29.4523 -90.2624 -19.0265
29.2673 -90.2608 -20.0675
29.0073 -90.2513 -21.0837
28.7354 -90.2404 -22.0956
28.3870 -90.2216 -23.0831
27.9101 -90.1894 -24.0305
27.2041 -90.1332 -24.9075
26.2677 -90.0530 -25.7153
25.1934 -89.9585 -26.4838
23.9491 -89.8463 -27.2045
29.0330 -91.2222 -15.5940
29.4351 -91.2803 -16.8330
29.5778 -91.3119 -17.9835
29.5224 -91.3231 -19.0673
29.2908 -91.3163 -20.0929
28.9774 -91.3011 -21.0918
28.6886 -91.2884 -22.0983
28.3100 -91.2665 -23.0763
27.7876 -91.2299 -24.0095
26.9969 -91.1659 -24.8604
25.9543 -91.0763 -25.6359
24.7512 -90.9703 -26.3657
23.2590 -90.8349 -27.0122
21.8403 -90.7071 -27.6863
28.9687 -92.2724 -15.5912
29.4321 -92.3349 -16.8504
29.6421 -92.3720 -18.0228
29.6330 -92.3871 -19.1213
29.4191 -92.3818 -20.1522
29.1111 -92.3671 -21.1523
28.7557 -92.3475 -22.1372
28.3034 -92.3184 -23.0916
27.6907 -92.2732 -23.9965
26.8019 -92.2004 -24.8170
25.6615 -92.1027 -25.5628
24.3860 -91.9915 -26.2712
23.0147 -91.8708 -26.9550
21.6678 -91.7526 -27.6512
28.8959 -93.3218 -15.5856
29.4593 -93.3921 -16.8777
29.7389 -93.4347 -18.0726
29.8064 -93.4565 -19.1956
29.6423 -93.4557 -20.2419
29.2862 -93.4361 -21.2260
28.8522 -93.4090 -22.1854
28.3247 -93.3727 -23.1158
27.6051 -93.3177 -23.9870
26.6034 -93.2352 -24.7727
25.3986 -93.1330 -25.4990
24.0998 -93.0217 -26.2008
22.6460 -92.8954 -26.8603
29.3949 -94.4401 -16.8749
29.8328 -94.4963 -18.1215
29.9855 -94.5253 -19.2718
29.8670 -94.5283 -20.3322
29.4603 -94.5040 -21.2994
28.9632 -94.4710 -22.2382
28.3638 -94.4283 -23.1456
27.5269 -94.3630 -23.9799
26.4174 -94.2718 -24.7322
25.1475 -94.1655 -25.4389
23.7781 -94.0497 -26.1196
22.2624 -93.9200 -26.7610
29.8304 -95.5482 -18.1389
30.1051 -95.5873 -19.3286
30.0072 -95.5918 -20.3952
29.6027 -95.5678 -21.3627
29.0863 -95.5333 -22.2949
28.4145 -95.4845 -23.1790
27.4600 -95.4094 -23.9764
26.2555 -95.3112 -24.6993
24.9075 -95.1997 -25.3822
23.4122 -95.0746 -26.0250
29.6769 -96.5862 -18.1070
30.1534 -96.6421 -19.3624
30.1162 -96.6515 -20.4482
29.7501 -96.6310 -21.4275
29.2110 -96.5949 -22.3520
28.4290 -96.5369 -23.2011
27.3720 -96.4539 -23.9663
26.0963 -96.3513 -24.6672
24.6884 -96.2367 -25.3320
29.5125 -97.6236 -18.0715
30.0821 -97.6858 -19.3573
30.1641 -97.7049 -20.4816
29.8830 -97.6920 -21.4878
29.3320 -97.6553 -22.4080
28.4532 -97.5897 -23.2262
27.3059 -97.5005 -23.9630
25.9558 -97.3934 -24.6410
24.4290 -97.2708 -25.2694
22.7328 -97.1334 -25.8519
29.3510 -98.6618 -18.0370
29.9870 -98.7275 -19.3445
30.1918 -98.7562 -20.5084
29.9927 -98.7501 -21.5406
29.4183 -98.7119 -22.4531
28.5030 -98.6444 -23.2594
27.2838 -98.5508 -23.9736
25.8533 -98.4392 -24.6265
24.1970 -98.3082 -25.2153
22.4302 -98.1678 -25.7767
